ply
		format ascii 1.0
		element vertex 92730
		property float x
		property float y
		property float z
		property uchar red
		property uchar green
		property uchar blue
		end_header
-3.569293 -4.722908 24.281218 94 96 70
-3.557728 -4.722908 24.281218 99 99 68
-3.583491 -4.772623 24.536808 103 99 67
-4.215173 -5.632288 28.956482 106 101 67
-4.281154 -5.739231 29.506289 106 102 70
-4.267100 -5.739231 29.506289 108 102 74
-4.280136 -5.775786 29.694227 107 103 75
-4.238993 -5.739231 29.506289 108 103 79
-4.224939 -5.739231 29.506289 115 105 70
-4.210885 -5.739231 29.506289 116 107 52
-4.170436 -5.703135 29.320715 116 94 42
-4.156471 -5.703135 29.320715 114 76 35
-4.222169 -5.812810 29.884575 108 74 54
-4.181133 -5.775786 29.694227 125 127 128
-4.088859 -5.667490 29.137461 195 215 197
-4.074981 -5.667490 29.137461 250 253 238
-4.138703 -5.775786 29.694227 255 255 253
-4.151000 -5.812810 29.884575 255 255 255
-4.136765 -5.812810 29.884575 255 255 253
-4.122531 -5.812810 29.884575 255 255 242
-4.108298 -5.812810 29.884575 254 253 217
-4.120477 -5.850312 30.077379 242 240 200
-4.079830 -5.812810 29.884575 227 221 155
-4.039701 -5.775786 29.694227 215 176 95
-4.000079 -5.739231 29.506289 147 103 60
-3.936200 -5.667490 29.137461 78 59 45
-3.897959 -5.632288 28.956482 64 55 58
-3.836509 -5.563180 28.601189 68 67 82
-3.776548 -5.495748 28.254507 80 71 94
-3.718024 -5.429931 27.916130 63 61 92
-3.639350 -5.334108 27.423492 38 45 94
-3.626288 -5.334108 27.423492 29 38 93
-3.613227 -5.334108 27.423492 24 38 86
-3.600165 -5.334108 27.423492 25 42 87
-3.566126 -5.302915 27.263121 32 42 93
-3.553141 -5.302915 27.263121 35 42 98
-3.499228 -5.241610 26.947941 34 37 101
-3.466357 -5.211485 26.793068 30 36 100
-3.433860 -5.181705 26.639963 24 26 68
-3.421172 -5.181705 26.639963 4 4 12
-3.389117 -5.152264 26.488600 0 0 0
-3.376500 -5.152264 26.488600 0 0 0
-3.344879 -5.123155 26.338947 0 0 0
-3.313613 -5.094373 26.190975 0 0 0
-3.282696 -5.065913 26.044657 0 0 0
-3.216385 -4.982409 25.615351 0 0 0
-3.204185 -4.982409 25.615351 0 0 0
-3.191984 -4.982409 25.615351 0 0 0
-3.197351 -5.009936 25.756870 0 0 0
-2.941326 -1.949521 10.047400 24 20 18
-2.923937 -1.941154 10.004278 24 20 16
-2.931755 -1.949521 10.047400 24 22 18
-2.933291 -1.953732 10.069100 23 22 20
-2.928495 -1.953732 10.069100 22 22 19
-2.917398 -1.949521 10.047400 19 22 17
-2.893902 -1.936998 9.982856 22 23 18
-2.858542 -1.916479 9.877106 25 24 22
-2.812132 -1.888472 9.732763 46 36 19
-2.801647 -1.884537 9.712487 69 50 19
-2.785415 -1.876718 9.672186 79 52 25
-2.769318 -1.868963 9.632218 84 50 31
-2.759029 -1.865109 9.612358 87 51 32
-2.748783 -1.861272 9.592580 89 52 28
-2.705250 -1.834844 9.456377 83 52 24
-2.684411 -1.823746 9.399180 83 50 27
-2.621789 -1.784177 9.195253 79 50 30
-2.602013 -1.773682 9.141164 81 51 25
-2.592576 -1.770211 9.123276 84 52 25
-2.578140 -1.763310 9.087707 83 52 29
-2.573811 -1.763310 9.087707 82 49 30
-2.544681 -1.746289 8.999988 81 49 32
-2.540394 -1.746289 8.999988 88 52 32
-2.536108 -1.746289 8.999988 87 55 29
-2.531821 -1.746289 8.999988 83 55 32
-2.527534 -1.746289 8.999988 85 55 33
-2.533028 -1.753058 9.034871 85 57 34
-2.543512 -1.763310 9.087707 84 57 26
-2.549122 -1.770211 9.123276 83 57 23
-2.564854 -1.784177 9.195253 89 57 25
-2.591138 -1.805545 9.305377 90 54 31
-2.571309 -1.794798 9.249988 86 55 32
-2.546692 -1.780665 9.177153 86 57 29
-2.527395 -1.770211 9.123276 89 58 29
-2.508324 -1.759879 9.070026 87 55 32
-2.499141 -1.756462 9.052415 85 53 28
-2.499684 -1.759879 9.070026 88 52 28
-2.495363 -1.759879 9.070026 86 50 30
-2.486207 -1.756462 9.052415 80 45 30
-2.477085 -1.753058 9.034871 75 45 22
-2.472782 -1.753058 9.034871 73 44 25
-2.473272 -1.756462 9.052415 80 53 29
-2.468960 -1.756462 9.052415 106 67 40
-2.508486 -1.787703 9.213427 116 71 43
-2.509056 -1.791243 9.231670 114 69 38
-2.504659 -1.791243 9.231670 105 65 38
-2.466079 -1.766754 9.105456 100 67 34
-2.423869 -1.739573 8.965372 96 65 32
-2.387460 -1.716467 8.846288 94 61 34
-2.374236 -1.709977 8.812842 98 61 37
-2.365567 -1.706751 8.796214 116 73 41
-2.078244 -1.510147 7.782961 155 84 64
-2.027158 -1.475657 7.605210 158 76 52
-2.020240 -1.473254 7.592824 149 71 44
-2.016624 -1.473254 7.592824 102 57 34
-2.009734 -1.470858 7.580478 35 25 27
-2.006124 -1.470858 7.580478 60 40 45
-2.005774 -1.473254 7.592824 73 62 71
-2.002158 -1.473254 7.592824 26 26 38
-1.998542 -1.473254 7.592824 22 16 19
-1.991681 -1.470858 7.580478 21 17 19
-1.981627 -1.466091 7.555905 25 20 25
-1.971637 -1.461354 7.531492 59 64 86
-1.958557 -1.454305 7.495167 180 200 210
-1.954987 -1.454305 7.495167 251 254 253
-1.954560 -1.456647 7.507236 255 255 255
-1.950984 -1.456647 7.507236 255 255 255
-1.938046 -1.449644 7.471144 254 255 255
-1.928307 -1.445013 7.447274 214 231 232
-1.918630 -1.440411 7.423557 93 109 134
-1.909014 -1.435838 7.399990 33 36 43
-1.893468 -1.426779 7.353302 30 31 32
-1.886989 -1.424532 7.341722 29 32 33
-1.877579 -1.420060 7.318671 34 38 49
-1.865308 -1.413403 7.284365 112 109 135
-1.847406 -1.402446 7.227897 233 229 230
-1.832598 -1.393803 7.183349 255 255 254
-1.804158 -1.374738 7.085097 255 255 255
-1.792610 -1.368499 7.052940 255 255 255
-1.781167 -1.362316 7.021075 251 254 255
-1.772484 -1.358225 6.999990 179 208 230
-1.766497 -1.356189 6.989496 57 80 119
-1.760529 -1.354159 6.979033 30 32 51
-1.754578 -1.352134 6.968600 32 30 43
-1.743441 -1.346098 6.937490 31 31 41
-1.737551 -1.344098 6.927182 38 46 73
-1.731678 -1.342104 6.916904 119 150 185
-1.723270 -1.338133 6.896441 234 246 251
-1.712386 -1.332221 6.865970 255 255 255
-1.701598 -1.326361 6.835768 255 255 255
-1.695855 -1.324419 6.825759 255 255 255
-1.690130 -1.322482 6.815780 251 250 248
-1.686883 -1.322482 6.815780 177 171 185
-1.683637 -1.322482 6.815780 52 51 88
-1.680391 -1.322482 6.815780 25 27 45
-1.677144 -1.322482 6.815780 19 27 38
-1.673898 -1.322482 6.815780 20 27 43
-1.670652 -1.322482 6.815780 53 51 94
-1.667405 -1.322482 6.815780 183 177 201
-1.666596 -1.324419 6.825759 251 251 250
-1.665784 -1.326361 6.835768 253 254 254
-1.662528 -1.326361 6.835768 251 254 254
-1.659272 -1.326361 6.835768 250 254 254
-1.663333 -1.332221 6.865970 228 241 247
-1.662511 -1.334186 6.876097 124 142 180
-1.659236 -1.334186 6.876097 48 53 92
-1.655961 -1.334186 6.876097 41 46 76
-1.655127 -1.336156 6.886253 42 50 74
-1.654291 -1.338133 6.896441 42 57 80
-1.653452 -1.340115 6.906657 75 94 145
-1.650162 -1.340115 6.906657 190 205 234
-1.649316 -1.342104 6.916904 245 244 245
-1.646021 -1.342104 6.916904 241 243 243
-1.642727 -1.342104 6.916904 235 241 241
-1.639432 -1.342104 6.916904 228 238 243
-1.636138 -1.342104 6.916904 216 229 237
-1.635270 -1.344098 6.927182 146 141 151
-1.631970 -1.344098 6.927182 45 40 47
-1.628671 -1.344098 6.927182 27 25 21
-1.625371 -1.344098 6.927182 28 24 18
-1.624486 -1.346098 6.937490 30 23 19
-1.621181 -1.346098 6.937490 31 23 20
-1.617877 -1.346098 6.937490 49 28 24
-1.614573 -1.346098 6.937490 70 37 25
-1.611269 -1.346098 6.937490 67 38 19
-1.607964 -1.346098 6.937490 59 31 16
-1.604660 -1.346098 6.937490 48 26 17
-1.601356 -1.346098 6.937490 38 24 20
-1.598051 -1.346098 6.937490 34 21 17
-1.594747 -1.346098 6.937490 37 20 15
-1.593814 -1.348104 6.947830 35 18 18
-1.590505 -1.348104 6.947830 38 21 24
-1.587196 -1.348104 6.947830 51 32 26
-1.586251 -1.350116 6.958200 68 40 29
-1.585303 -1.352134 6.968600 65 41 24
-1.581984 -1.352134 6.968600 68 43 23
-1.578665 -1.352134 6.968600 76 48 27
-1.575345 -1.352134 6.968600 87 52 30
-1.572026 -1.352134 6.968600 91 58 33
-1.568707 -1.352134 6.968600 108 73 38
-1.565388 -1.352134 6.968600 140 94 42
-1.562069 -1.352134 6.968600 134 86 42
-1.561083 -1.354159 6.979033 118 73 40
-1.557759 -1.354159 6.979033 117 67 38
-1.556766 -1.356189 6.989496 112 64 35
-1.553437 -1.356189 6.989496 107 61 33
-1.550107 -1.356189 6.989496 100 59 35
-1.549101 -1.358225 6.999990 99 55 30
-1.545767 -1.358225 6.999990 91 51 22
-1.547079 -1.362316 7.021075 86 49 28
-1.546063 -1.364371 7.031665 82 47 28
-1.542714 -1.364371 7.031665 76 51 23
-1.541690 -1.366432 7.042286 77 51 22
-1.538336 -1.366432 7.042286 80 52 20
-1.537304 -1.368499 7.052940 77 52 24
-1.536269 -1.370573 7.063627 73 52 27
-1.535230 -1.372652 7.074346 73 51 25
-1.534189 -1.374738 7.085097 72 49 22
-1.530814 -1.374738 7.085097 70 43 18
-1.529765 -1.376831 7.095881 76 39 16
-1.526385 -1.376831 7.095881 80 41 13
-1.523005 -1.376831 7.095881 80 42 9
-1.521942 -1.378930 7.106698 85 44 4
-1.518557 -1.378930 7.106698 87 43 4
-1.515172 -1.378930 7.106698 89 41 6
-1.514095 -1.381035 7.117548 82 39 7
-1.510705 -1.381035 7.117548 80 39 7
-1.507315 -1.381035 7.117548 84 42 5
-1.506225 -1.383147 7.128431 87 44 8
-1.505131 -1.385265 7.139347 88 44 14
-1.504033 -1.387389 7.150297 90 45 16
-1.502933 -1.389521 7.161281 92 48 15
-1.501829 -1.391658 7.172298 89 48 15
-1.498413 -1.391658 7.172298 89 43 10
-1.494997 -1.391658 7.172298 83 41 9
-1.491581 -1.391658 7.172298 77 41 10
-1.485878 -1.389521 7.161281 79 39 10
-1.482468 -1.389521 7.161281 82 40 7
-1.483615 -1.393803 7.183349 83 40 9
-1.494005 -1.406809 7.250379 84 38 11
-1.497539 -1.413403 7.284365 79 38 11
-1.654333 -1.565014 8.065733 74 37 8
-1.653352 -1.567726 8.079712 71 34 8
-1.646649 -1.565014 8.065733 66 32 9
-1.639971 -1.562311 8.051803 66 33 8
-1.633315 -1.559617 8.037920 62 35 5
-1.629486 -1.559617 8.037920 61 35 4
-1.625658 -1.559617 8.037920 58 34 7
-1.619038 -1.556933 8.024085 59 32 10
-1.615216 -1.556933 8.024085 64 32 13
-1.616960 -1.562311 8.051803 68 35 13
-1.615916 -1.565014 8.065733 69 38 8
-1.612074 -1.565014 8.065733 70 40 6
-1.613817 -1.570448 8.093739 73 39 8
-1.618391 -1.578670 8.136115 79 40 9
-1.634483 -1.598194 8.236738 77 40 8
-1.642166 -1.609569 8.295362 74 39 9
-5.143445 -5.053508 26.044657 72 38 8
-5.189017 -5.110610 26.338947 69 38 8
-5.176472 -5.110610 26.338947 72 43 18
-5.193267 -5.139647 26.488600 80 67 53
-5.180651 -5.139647 26.488600 119 108 78
-5.227437 -5.198724 26.793068 141 129 85
-5.244818 -5.228774 26.947941 142 134 76
-5.262402 -5.259174 27.104614 142 131 80
-5.219148 -5.228774 26.947941 136 130 82
-5.206313 -5.228774 26.947941 134 128 83
-5.193478 -5.228774 26.947941 133 126 74
-5.180642 -5.228774 26.947941 130 127 72
-5.197853 -5.259174 27.104614 128 120 69
-5.184943 -5.259174 27.104614 112 90 43
-5.202279 -5.289929 27.263121 71 49 25
-5.189293 -5.289929 27.263121 46 29 14
-5.176308 -5.289929 27.263121 38 24 9
-5.193695 -5.321047 27.423492 35 23 11
-5.370169 -5.515719 28.426790 35 23 10
-5.895887 -6.070993 31.288548 33 22 9
-6.043219 -6.238469 32.151680 30 21 10
-6.069765 -6.281791 32.374954 32 20 10
-6.054345 -6.281791 32.374954 32 21 9
-6.038925 -6.281791 32.374954 31 22 8
-6.023505 -6.281791 32.374954 27 21 6
-6.050099 -6.325720 32.601353 25 19 6
-6.034572 -6.325720 32.601353 25 17 8
-6.019043 -6.325720 32.601353 26 15 9
-6.045794 -6.370267 32.830940 27 16 10
-6.296193 -6.651309 34.279366 29 17 11
-6.326383 -6.700577 34.533287 31 19 11
-6.309935 -6.700577 34.533287 33 20 10
-6.293487 -6.700577 34.533287 36 21 8
-6.323883 -6.750582 34.790997 37 21 7
-6.307312 -6.750582 34.790997 37 22 13
-6.290741 -6.750582 34.790997 36 28 21
-6.274170 -6.750582 34.790997 46 39 27
-6.304649 -6.801338 35.052586 57 46 33
-6.287953 -6.801338 35.052586 60 47 31
-6.271258 -6.801338 35.052586 57 48 30
-6.301946 -6.852863 35.318134 58 48 28
-6.285124 -6.852863 35.318134 59 48 27
-6.268302 -6.852863 35.318134 57 46 28
-6.251480 -6.852863 35.318134 54 46 25
-6.282251 -6.905175 35.587738 50 46 24
-6.265300 -6.905175 35.587738 54 47 28
-6.248350 -6.905175 35.587738 64 53 32
-6.231400 -6.905175 35.587738 64 56 29
-6.262253 -6.958292 35.861488 62 55 32
-6.245172 -6.958292 35.861488 63 59 29
-6.228091 -6.958292 35.861488 69 61 30
-6.211011 -6.958292 35.861488 73 60 33
-6.193930 -6.958292 35.861488 74 60 35
-6.176849 -6.958292 35.861488 72 60 38
-6.159769 -6.958292 35.861488 74 60 41
-6.142688 -6.958292 35.861488 70 61 37
-6.125607 -6.958292 35.861488 71 60 39
-6.061896 -6.905175 35.587738 69 58 44
-6.044946 -6.905175 35.587738 69 61 33
-6.027996 -6.905175 35.587738 67 62 34
-6.011045 -6.905175 35.587738 65 64 34
-5.948685 -6.852863 35.318134 61 64 32
-5.887263 -6.801338 35.052586 69 62 33
-5.870567 -6.801338 35.052586 69 62 35
-5.810186 -6.750582 34.790997 73 61 39
-5.793616 -6.750582 34.790997 73 59 42
-5.734252 -6.700577 34.533287 70 60 33
-5.675761 -6.651309 34.279366 71 60 30
-5.659434 -6.651309 34.279366 73 60 34
-5.643107 -6.651309 34.279366 70 58 34
-5.626780 -6.651309 34.279366 70 58 36
-5.489364 -6.507755 33.539524 72 60 36
-5.635563 -6.700577 34.533287 73 58 29
-5.619115 -6.700577 34.533287 82 56 19
-5.602667 -6.700577 34.533287 97 56 13
-5.586219 -6.700577 34.533287 105 57 12
-5.569771 -6.700577 34.533287 103 55 11
-5.354990 -6.461271 33.299953 101 51 14
-4.853754 -5.873883 30.272686 94 51 17
-4.839335 -5.873883 30.272686 77 52 20
-4.793788 -5.835987 30.077379 68 55 27
-4.841938 -5.912274 30.470547 73 64 38
-4.734591 -5.798576 29.884575 81 72 44
-4.660605 -5.725177 29.506289 81 77 45
-4.617328 -5.689169 29.320715 84 77 44
-4.574592 -5.653612 29.137461 82 77 57
-4.560713 -5.653612 29.137461 88 89 83
-4.546835 -5.653612 29.137461 119 114 87
-4.532957 -5.653612 29.137461 140 126 81
-4.519079 -5.653612 29.137461 134 124 93
-4.505201 -5.653612 29.137461 132 125 104
-4.491323 -5.653612 29.137461 147 131 101
-4.477445 -5.653612 29.137461 148 122 77
-4.408461 -5.583815 28.777739 112 99 59
-4.394754 -5.583815 28.777739 87 83 51
-4.354170 -5.549558 28.601189 88 78 49
-4.340548 -5.549558 28.601189 87 79 52
-3.692611 -4.736010 24.408344 82 81 51
-3.661814 -4.711343 24.281218 90 82 45
-3.650249 -4.711343 24.281218 88 81 44
-3.638684 -4.711343 24.281218 84 82 44
-3.608325 -4.686932 24.155407 85 81 44
-3.596820 -4.686932 24.155407 88 82 43
-3.585315 -4.686932 24.155407 85 83 51
-3.573810 -4.686932 24.155407 83 83 53
-3.507780 -4.615193 23.785683 83 86 52
-3.496450 -4.615193 23.785683 83 86 54
-3.557728 -4.711343 24.281218 91 86 52
-3.546163 -4.711343 24.281218 93 86 57
-3.571804 -4.760936 24.536808 92 89 61
-4.201381 -5.618496 28.956482 97 90 60
-4.213761 -5.653612 29.137461 100 89 63
-4.253047 -5.725177 29.506289 95 92 60
-4.238993 -5.725177 29.506289 95 94 61
-4.198367 -5.689169 29.320715 100 93 63
-4.158249 -5.653612 29.137461 100 93 51
-4.118629 -5.618496 28.956482 98 84 43
-4.104838 -5.618496 28.956482 101 71 37
-4.116615 -5.653612 29.137461 101 74 54
-4.102737 -5.653612 29.137461 117 136 122
-4.063462 -5.618496 28.956482 195 222 197
-4.049670 -5.618496 28.956482 250 253 244
-4.165233 -5.798576 29.884575 255 255 254
-4.151000 -5.798576 29.884575 255 255 255
-4.136765 -5.798576 29.884575 255 255 255
-4.122531 -5.798576 29.884575 255 255 254
-4.108298 -5.798576 29.884575 255 255 251
-4.094064 -5.798576 29.884575 255 255 244
-4.053843 -5.761643 29.694227 254 250 205
-4.014132 -5.725177 29.506289 240 204 127
-3.974921 -5.689169 29.320715 163 116 84
-3.936200 -5.653612 29.137461 93 78 78
-3.897959 -5.618496 28.956482 96 103 102
-3.836509 -5.549558 28.601189 137 141 119
-3.776548 -5.482291 28.254507 168 139 117
-3.718024 -5.416635 27.916130 119 97 110
-3.639350 -5.321047 27.423492 51 54 103
-3.605082 -5.289929 27.263121 31 39 98
-3.613227 -5.321047 27.423492 27 37 95
-3.579111 -5.289929 27.263121 28 39 92
-3.566126 -5.289929 27.263121 31 41 92
-3.532483 -5.259174 27.104614 34 43 85
-3.499228 -5.228774 26.947941 32 39 96
-3.466357 -5.198724 26.793068 31 36 99
-3.433860 -5.169017 26.639963 23 27 66
-3.421172 -5.169017 26.639963 4 5 11
-3.389117 -5.139647 26.488600 0 0 0
-3.376500 -5.139647 26.488600 0 0 0
-3.363884 -5.139647 26.488600 0 0 0
-3.332334 -5.110610 26.338947 0 0 0
-3.282696 -5.053508 26.044657 0 0 0
-3.216385 -4.970209 25.615351 0 0 0
-3.204185 -4.970209 25.615351 0 0 0
-3.191984 -4.970209 25.615351 0 0 0
-3.197351 -4.997668 25.756870 0 0 0
-2.947678 -1.948936 10.069100 23 20 19
-2.936540 -1.944736 10.047400 25 20 19
-2.938087 -1.948936 10.069100 24 22 16
-2.933291 -1.948936 10.069100 23 22 16
-2.922184 -1.944736 10.047400 21 22 18
-2.904877 -1.936389 10.004278 21 21 20
-2.875430 -1.919909 9.919135 23 22 19
-2.846480 -1.903708 9.835430 22 22 17
-2.818015 -1.887777 9.753125 29 27 16
-2.807496 -1.883836 9.732763 49 38 19
-2.797021 -1.879911 9.712487 68 47 23
-2.775051 -1.868235 9.652161 79 49 26
-2.770454 -1.868235 9.652161 85 49 32
-2.754451 -1.860531 9.612358 86 51 32
-2.738580 -1.852890 9.572883 83 49 29
-2.689834 -1.822944 9.418169 80 52 26
-2.616628 -1.776294 9.177153 80 53 27
-2.596921 -1.765866 9.123276 81 52 25
-2.582468 -1.758981 9.087707 83 53 27
-2.578140 -1.758981 9.087707 83 52 34
-2.548968 -1.742003 8.999988 84 51 32
-2.539778 -1.738646 8.982647 84 50 29
-2.535500 -1.738646 8.982647 89 50 29
-2.536108 -1.742003 8.999988 88 51 29
-2.531821 -1.742003 8.999988 85 52 31
-2.532423 -1.745372 9.017396 83 54 33
-2.537946 -1.752150 9.052415 87 56 34
-2.553467 -1.765866 9.123276 86 56 29
-2.574311 -1.783315 9.213427 86 57 31
-2.600762 -1.804715 9.323987 96 56 36
-2.596321 -1.804715 9.323987 94 56 35
-2.586706 -1.801113 9.305377 89 59 32
-2.556758 -1.783315 9.213427 89 62 29
-2.527395 -1.765866 9.123276 91 61 31
-2.508324 -1.755559 9.070026 94 58 34
-2.499141 -1.752150 9.052415 94 55 33
-2.499684 -1.755559 9.070026 94 55 33
-2.500228 -1.758981 9.087707 94 51 34
-2.500774 -1.762417 9.105456 90 46 29
-2.496437 -1.762417 9.105456 79 50 26
-2.492100 -1.762417 9.105456 79 48 29
-2.492632 -1.765866 9.123276 84 52 31
-2.461742 -1.762417 9.105456 109 70 38
-2.410328 -1.728654 8.931023 97 62 36
-2.374236 -1.705780 8.812842 101 62 35
-2.370039 -1.705780 8.812842 117 75 42
-2.099272 -1.521682 7.861710 118 69 45
-2.043829 -1.484141 7.667753 118 62 38
-2.026842 -1.474440 7.617637 101 53 32
-2.016624 -1.469638 7.592824 65 37 29
-2.009734 -1.467248 7.580478 28 20 24
-2.006124 -1.467248 7.580478 50 37 44
-2.002513 -1.467248 7.580478 62 64 70
-1.995658 -1.464866 7.568172 24 29 42
-1.985606 -1.460125 7.543679 20 19 20
-1.985225 -1.462492 7.555905 22 18 17
-1.978420 -1.460125 7.543679 22 20 25
-1.971637 -1.457766 7.531492 49 58 78
-1.955413 -1.448407 7.483136 173 192 192
-1.951849 -1.448407 7.483136 250 253 250
-1.951417 -1.450735 7.495167 255 255 255
-1.944721 -1.448407 7.483136 255 255 255
-1.931854 -1.441466 7.447274 255 255 255
-1.922166 -1.436875 7.423557 231 233 240
-1.909508 -1.430043 7.388263 112 113 156
-1.888036 -1.416574 7.318671 34 35 55
-1.881597 -1.414353 7.307200 32 30 38
-1.881065 -1.416574 7.318671 31 33 41
-1.874636 -1.414353 7.307200 37 40 56
-1.862398 -1.407734 7.273001 116 102 131
-1.844546 -1.396838 7.216709 233 225 226
-1.821372 -1.381864 7.139347 252 254 254
-1.804158 -1.371364 7.085097 251 254 254
-1.787202 -1.361022 7.031665 250 254 254
-1.775818 -1.354891 6.999990 246 253 254
-1.769826 -1.352860 6.989496 182 212 235
-1.763853 -1.350834 6.979033 66 95 146
-1.757897 -1.348815 6.968600 38 52 83
-1.751959 -1.346802 6.958200 41 51 74
-1.743441 -1.342794 6.937490 42 54 74
-1.737551 -1.340799 6.927182 53 65 99
-1.731678 -1.338809 6.916904 123 151 189
-1.725823 -1.336826 6.906657 223 237 244
-1.714912 -1.330911 6.876097 236 244 246
-1.704097 -1.325048 6.845806 230 243 247
-1.695855 -1.321168 6.825759 225 241 247
-1.690130 -1.319236 6.815780 221 237 242
-1.686883 -1.319236 6.815780 171 179 209
-1.683637 -1.319236 6.815780 82 96 147
-1.680391 -1.319236 6.815780 66 87 120
-1.677144 -1.319236 6.815780 70 92 122
-1.673898 -1.319236 6.815780 77 97 131
-1.670652 -1.319236 6.815780 106 115 161
-1.669847 -1.321168 6.825759 187 184 206
-1.669039 -1.323105 6.835768 216 213 223
-1.665784 -1.323105 6.835768 204 209 217
-1.662528 -1.323105 6.835768 190 204 212
-1.664152 -1.326996 6.855873 177 199 211
-1.665786 -1.330911 6.876097 173 195 218
-1.662511 -1.330911 6.876097 164 177 216
-1.659236 -1.330911 6.876097 145 156 195
-1.655961 -1.330911 6.876097 140 160 192
-1.655127 -1.332877 6.886253 142 168 195
-1.654291 -1.334848 6.896441 143 175 199
-1.653452 -1.336826 6.906657 155 183 217
-1.650162 -1.336826 6.906657 166 175 215
-1.649316 -1.338809 6.916904 158 147 176
-1.646021 -1.338809 6.916904 142 138 159
-1.642727 -1.338809 6.916904 128 132 148
-1.639432 -1.338809 6.916904 114 125 154
-1.638569 -1.340799 6.927182 115 132 172
-1.635270 -1.340799 6.927182 122 109 126
-1.631970 -1.340799 6.927182 46 39 43
-1.628671 -1.340799 6.927182 26 26 18
-1.627790 -1.342794 6.937490 29 24 16
-1.624486 -1.342794 6.937490 27 23 18
-1.621181 -1.342794 6.937490 26 21 20
-1.617877 -1.342794 6.937490 39 26 20
-1.614573 -1.342794 6.937490 56 31 19
-1.611269 -1.342794 6.937490 56 31 16
-1.607964 -1.342794 6.937490 49 26 17
-1.604660 -1.342794 6.937490 43 24 16
-1.601356 -1.342794 6.937490 38 22 16
-1.598051 -1.342794 6.937490 35 21 14
-1.594747 -1.342794 6.937490 34 20 14
-1.593814 -1.344795 6.947830 36 22 17
-1.590505 -1.344795 6.947830 48 28 25
-1.587196 -1.344795 6.947830 60 39 27
-1.586251 -1.346802 6.958200 72 46 24
-1.585303 -1.348815 6.968600 76 49 23
-1.581984 -1.348815 6.968600 82 54 23
-1.578665 -1.348815 6.968600 90 57 28
-1.575345 -1.348815 6.968600 91 57 34
-1.572026 -1.348815 6.968600 93 59 35
-1.568707 -1.348815 6.968600 107 71 43
-1.565388 -1.348815 6.968600 136 90 43
-1.564407 -1.350834 6.979033 129 81 37
-1.561083 -1.350834 6.979033 107 68 34
-1.560095 -1.352860 6.989496 104 62 33
-1.556766 -1.352860 6.989496 98 59 24
-1.555769 -1.354891 6.999990 94 54 26
-1.552435 -1.354891 6.999990 91 53 32
-1.549101 -1.354891 6.999990 89 52 28
-1.545767 -1.354891 6.999990 82 49 21
-1.547079 -1.358972 7.021075 79 47 23
-1.546063 -1.361022 7.031665 78 47 25
-1.542714 -1.361022 7.031665 76 51 27
-1.541690 -1.363078 7.042286 73 52 27
-1.538336 -1.363078 7.042286 78 51 24
-1.537304 -1.365140 7.052940 78 50 26
-1.538600 -1.369283 7.074346 75 52 24
-1.537563 -1.371364 7.085097 74 50 20
-1.534189 -1.371364 7.085097 70 44 15
-1.533144 -1.373451 7.095881 70 40 12
-1.529765 -1.373451 7.095881 73 39 10
-1.528712 -1.375545 7.106698 80 39 10
-1.525327 -1.375545 7.106698 81 40 10
-1.521942 -1.375545 7.106698 85 43 6
-1.518557 -1.375545 7.106698 83 44 6
-1.517485 -1.377645 7.117548 83 42 8
-1.514095 -1.377645 7.117548 78 40 7
-1.510705 -1.377645 7.117548 79 38 9
-1.509620 -1.379751 7.128431 86 38 11
-1.508531 -1.381864 7.139347 88 43 12
-1.505131 -1.381864 7.139347 91 43 15
-1.504033 -1.383984 7.150297 88 44 14
-1.502933 -1.386110 7.161281 90 46 13
-1.501829 -1.388242 7.172298 90 46 14
-1.498413 -1.388242 7.172298 90 41 13
-1.494997 -1.388242 7.172298 83 39 11
-1.491581 -1.388242 7.172298 78 41 12
-1.485878 -1.386110 7.161281 78 41 9
-1.482468 -1.386110 7.161281 82 40 10
-1.483615 -1.390381 7.183349 83 39 13
-1.494005 -1.403355 7.250379 81 39 12
-1.497539 -1.409933 7.284365 78 37 11
-1.525047 -1.439167 7.435397 75 36 9
-1.650491 -1.561172 8.065733 67 33 9
-1.646649 -1.561172 8.065733 64 31 8
-1.639971 -1.558476 8.051803 63 32 8
-1.633315 -1.555789 8.037920 63 36 5
-1.629486 -1.555789 8.037920 62 35 5
-1.628465 -1.558476 8.051803 60 33 7
-1.624630 -1.558476 8.051803 59 33 9
-1.623599 -1.561172 8.065733 63 34 11
-1.619758 -1.561172 8.065733 70 35 10
-1.615916 -1.561172 8.065733 70 37 7
-1.612074 -1.561172 8.065733 71 39 5
-1.608233 -1.561172 8.065733 76 40 7
-1.609962 -1.566593 8.093739 77 42 9
-5.168254 -5.041103 26.044657 78 41 9
-5.184815 -5.069424 26.190975 77 40 8
-5.172340 -5.069424 26.190975 74 37 8
-5.189017 -5.098064 26.338947 73 38 9
-5.176472 -5.098064 26.338947 73 44 19
-5.193267 -5.127031 26.488600 85 70 44
-5.180651 -5.127031 26.488600 117 114 66
-5.257654 -5.215939 26.947941 136 133 82
-5.275311 -5.246264 27.104614 136 135 81
-5.262402 -5.246264 27.104614 140 131 84
-5.249492 -5.246264 27.104614 138 126 85
-5.206313 -5.215939 26.947941 136 124 79
-5.193478 -5.215939 26.947941 133 124 78
-5.210763 -5.246264 27.104614 133 123 81
-5.197853 -5.246264 27.104614 128 118 69
-5.184943 -5.246264 27.104614 107 92 40
-5.172033 -5.246264 27.104614 71 48 21
-5.189293 -5.276944 27.263121 47 28 13
-5.176308 -5.276944 27.263121 39 23 10
-5.193695 -5.307985 27.423492 34 23 11
-5.370169 -5.502180 28.426790 34 23 12
-5.935724 -6.097010 31.499958 33 23 9
-6.085185 -6.266371 32.374954 33 22 9
-6.069765 -6.266371 32.374954 34 20 12
-6.054345 -6.266371 32.374954 33 20 13
-6.038925 -6.266371 32.374954 33 21 9
-6.023505 -6.266371 32.374954 29 21 6
-6.050099 -6.310192 32.601353 25 19 6
-6.034572 -6.310192 32.601353 25 17 10
-6.061431 -6.354630 32.830940 27 15 12
-6.045794 -6.354630 32.830940 26 16 13
-6.342832 -6.684129 34.533287 29 16 13
-6.326383 -6.684129 34.533287 35 18 10
-6.309935 -6.684129 34.533287 36 20 10
-6.293487 -6.684129 34.533287 36 22 9
-6.323883 -6.734011 34.790997 37 21 10
-6.307312 -6.734011 34.790997 38 23 12
-6.290741 -6.734011 34.790997 38 28 18
-6.274170 -6.734011 34.790997 46 40 24
-6.257599 -6.734011 34.790997 56 46 30
-6.287953 -6.784642 35.052586 57 47 28
-6.271258 -6.784642 35.052586 57 46 28
-6.301946 -6.836041 35.318134 56 45 26
-6.285124 -6.836041 35.318134 57 46 26
-6.268302 -6.836041 35.318134 52 46 29
-6.251480 -6.836041 35.318134 48 46 26
-6.234658 -6.836041 35.318134 49 46 23
-6.265300 -6.888225 35.587738 53 48 22
-6.248350 -6.888225 35.587738 60 50 30
-6.231400 -6.888225 35.587738 59 51 35
-6.214449 -6.888225 35.587738 59 53 36
-6.197499 -6.888225 35.587738 61 56 32
-6.228091 -6.941211 35.861488 65 58 30
-6.211011 -6.941211 35.861488 67 60 29
-6.193930 -6.941211 35.861488 67 59 30
-6.176849 -6.941211 35.861488 68 57 32
-6.159769 -6.941211 35.861488 70 57 36
-6.095797 -6.888225 35.587738 70 60 30
-6.078847 -6.888225 35.587738 71 61 31
-6.061896 -6.888225 35.587738 71 61 34
-6.044946 -6.888225 35.587738 69 61 29
-6.027996 -6.888225 35.587738 67 60 35
-6.011045 -6.888225 35.587738 61 63 38
-5.948685 -6.836041 35.318134 61 62 37
-5.931863 -6.836041 35.318134 69 62 34
-5.870567 -6.784642 35.052586 73 61 30
-5.853872 -6.784642 35.052586 74 60 30
-5.793616 -6.734011 34.790997 73 58 40
-5.777045 -6.734011 34.790997 69 59 39
-5.760474 -6.734011 34.790997 69 59 36
-5.701355 -6.684129 34.533287 70 61 33
-5.643107 -6.634981 34.279366 70 60 34
-5.545232 -6.538822 33.782562 68 59 37
-5.450154 -6.445410 33.299953 71 57 36
-5.434293 -6.445410 33.299953 70 57 28
-5.619115 -6.684129 34.533287 80 56 22
-5.602667 -6.684129 34.533287 99 56 16
-5.627907 -6.734011 34.790997 106 55 13
-5.611336 -6.734011 34.790997 104 53 11
-5.512490 -6.634981 34.279366 101 55 12
-4.853754 -5.859464 30.272686 95 53 12
-4.839335 -5.859464 30.272686 79 51 22
-4.763058 -5.784343 29.884575 68 55 35
-4.748825 -5.784343 29.884575 73 63 47
-4.674659 -5.711123 29.506289 80 72 49
-4.631293 -5.675204 29.320715 84 76 52
-4.617328 -5.675204 29.320715 85 77 50
-4.574592 -5.639734 29.137461 83 77 59
-4.560713 -5.639734 29.137461 86 93 78
-4.546835 -5.639734 29.137461 120 114 87
-4.532957 -5.639734 29.137461 144 120 93
-4.519079 -5.639734 29.137461 133 122 101
-4.505201 -5.639734 29.137461 131 127 103
-4.491323 -5.639734 29.137461 149 131 95
-4.477445 -5.639734 29.137461 149 121 73
-4.408461 -5.570107 28.777739 113 98 59
-4.394754 -5.570107 28.777739 89 83 50
-4.301392 -5.468833 28.254507 88 77 49
-3.743435 -4.774378 24.666634 87 76 55
-3.692611 -4.724384 24.408344 86 76 50
-3.661814 -4.699779 24.281218 89 77 45
-3.650249 -4.699779 24.281218 88 77 41
-3.619830 -4.675427 24.155407 86 76 45
-3.571317 -4.627474 23.907660 84 78 44
-3.559930 -4.627474 23.907660 88 79 46
-3.548542 -4.627474 23.907660 83 79 53
-3.519109 -4.603865 23.785683 83 80 53
-3.454898 -4.534460 23.427103 82 83 48
-3.409474 -4.489340 23.193998 81 83 45
-3.485121 -4.603865 23.785683 87 81 49
-3.546163 -4.699779 24.281218 89 80 48
-3.571804 -4.749249 24.536808 90 81 53
-4.149830 -5.535935 28.601189 91 81 60
-4.161740 -5.570107 28.777739 92 81 62
-4.199883 -5.639734 29.137461 90 83 58
-4.212332 -5.675204 29.320715 90 86 55
-4.172127 -5.639734 29.137461 94 86 55
-4.132421 -5.604704 28.956482 95 85 49
-4.093206 -5.570107 28.777739 94 77 40
-4.079499 -5.570107 28.777739 101 66 33
-4.065793 -5.570107 28.777739 103 76 54
-4.077254 -5.604704 28.956482 121 141 121
-4.038379 -5.570107 28.777739 198 225 201
-4.024672 -5.570107 28.777739 249 254 248
-4.165233 -5.784343 29.884575 255 255 255
-4.177780 -5.821661 30.077379 255 255 255
-4.136765 -5.784343 29.884575 255 255 255
-4.122531 -5.784343 29.884575 255 255 255
-4.108298 -5.784343 29.884575 255 255 255
-4.067987 -5.747499 29.694227 255 255 251
-4.053843 -5.747499 29.694227 255 253 214
-4.014132 -5.711123 29.506289 239 213 140
-3.974921 -5.675204 29.320715 162 131 115
-3.936200 -5.639734 29.137461 111 119 130
-3.897959 -5.604704 28.956482 158 178 162
-3.836509 -5.535935 28.601189 220 225 169
-3.776548 -5.468833 28.254507 233 208 141
-3.718024 -5.403338 27.916130 161 129 122
-3.639350 -5.307985 27.423492 61 61 112
-3.605082 -5.276944 27.263121 32 41 101
-3.592097 -5.276944 27.263121 29 36 90
-3.579111 -5.276944 27.263121 30 37 86
-3.545393 -5.246264 27.104614 30 39 88
-3.512064 -5.215939 26.947941 31 42 89
-3.479118 -5.185962 26.793068 31 42 92
-3.466357 -5.185962 26.793068 33 38 93
-3.453595 -5.185962 26.793068 23 28 67
-3.421172 -5.156328 26.639963 4 5 12
-3.408483 -5.156328 26.639963 0 0 0
-3.376500 -5.127031 26.488600 0 0 0
-3.363884 -5.127031 26.488600 0 0 0
-3.332334 -5.098064 26.338947 0 0 0
-3.282696 -5.041103 26.044657 0 0 0
-3.216385 -4.958008 25.615351 0 0 0
-3.204185 -4.958008 25.615351 0 0 0
-3.191984 -4.958008 25.615351 0 0 0
-3.179784 -4.958008 25.615351 0 0 0
-2.973366 -1.961083 10.156849 25 21 18
-2.949252 -1.948348 10.090896 26 21 17
-2.944446 -1.948348 10.090896 23 22 18
-2.933291 -1.944140 10.069100 23 22 15
-2.922184 -1.939950 10.047400 22 23 14
-2.904877 -1.931624 10.004278 21 22 17
-2.875430 -1.915185 9.919135 22 21 21
-2.846480 -1.899023 9.835430 22 22 20
-2.829855 -1.891044 9.794105 25 22 19
-2.813370 -1.883132 9.753125 33 26 22
-2.802860 -1.879200 9.732763 50 36 22
-2.792395 -1.875285 9.712487 68 44 23
-2.787769 -1.875285 9.712487 80 47 27
-2.771595 -1.867504 9.672186 82 48 31
-2.778517 -1.875285 9.712487 82 47 31
-2.711747 -1.833273 9.494896 83 49 27
-2.601267 -1.761521 9.123276 84 51 27
-2.561828 -1.737716 8.999988 81 51 30
-2.528256 -1.717819 8.896935 84 51 33
-2.519211 -1.714547 8.879988 84 51 30
-2.514982 -1.714547 8.879988 86 51 29
-2.510752 -1.714547 8.879988 88 51 26
-2.506522 -1.714547 8.879988 88 49 25
-2.511862 -1.721103 8.913946 90 48 32
-2.526943 -1.734368 8.982647 91 50 33
-2.542258 -1.747839 9.052415 91 52 34
-2.542884 -1.751239 9.070026 93 55 35
-2.578699 -1.778927 9.213427 91 56 29
-2.610424 -1.803882 9.342672 89 58 29
-2.611207 -1.807504 9.361433 95 58 34
-2.596321 -1.800274 9.323987 95 58 35
-2.586706 -1.796681 9.305377 93 61 33
-2.546692 -1.771923 9.177153 94 62 32
-2.517542 -1.754653 9.087707 95 61 35
-2.498601 -1.744451 9.034871 95 59 36
-2.494298 -1.744451 9.034871 95 57 36
-2.504556 -1.754653 9.087707 93 55 36
-2.500228 -1.754653 9.087707 94 54 38
-2.500774 -1.758080 9.105456 93 51 30
-2.496437 -1.758080 9.105456 87 52 27
-2.506788 -1.768442 9.159123 87 51 30
-2.099272 -1.517938 7.861710 91 55 30
-2.057364 -1.490293 7.718533 84 46 30
-2.040177 -1.480488 7.667753 55 31 27
-2.026525 -1.473219 7.630104 30 19 24
-2.013007 -1.466021 7.592824 21 16 22
-2.006124 -1.463637 7.580478 39 35 44
-1.999262 -1.461261 7.568172 50 74 85
-1.989199 -1.456532 7.543679 32 46 78
-1.985606 -1.456532 7.543679 32 38 58
-1.982013 -1.456532 7.543679 34 41 56
-1.975224 -1.454179 7.531492 39 43 65
-1.971637 -1.454179 7.531492 65 72 106
-1.955413 -1.444843 7.483136 169 185 195
-1.948721 -1.442527 7.471144 231 243 245
-1.945163 -1.442527 7.471144 230 244 249
-1.941604 -1.442527 7.471144 229 242 248
-1.925702 -1.433339 7.423557 228 241 248
-1.906983 -1.422017 7.364919 215 225 238
-1.891522 -1.413088 7.318671 130 142 188
-1.885077 -1.410873 7.307200 71 87 126
-1.881597 -1.410873 7.307200 73 86 115
-1.878116 -1.410873 7.307200 78 93 121
-1.874636 -1.410873 7.307200 92 100 135
-1.862398 -1.404270 7.273001 148 140 169
-1.844546 -1.393401 7.216709 204 203 216
-1.810283 -1.370071 7.095881 194 208 225
-1.795969 -1.361781 7.052940 181 203 223
-1.781827 -1.353589 7.010517 168 201 221
-1.773155 -1.349531 6.989496 164 196 220
-1.767177 -1.347510 6.979033 158 187 224
-1.758588 -1.343488 6.958200 134 165 206
-1.755273 -1.343488 6.958200 122 159 188
-1.749348 -1.341486 6.947830 128 162 187
-1.743441 -1.339489 6.937490 133 167 191
-1.740137 -1.339489 6.937490 145 175 198
-1.734251 -1.337499 6.927182 155 185 220
-1.728384 -1.335515 6.916904 151 162 199
-1.717445 -1.329597 6.886253 134 142 167
-1.709116 -1.325680 6.865970 115 136 168
-1.698342 -1.319849 6.835768 105 132 165
-1.692604 -1.317917 6.825759 103 135 169
-1.689353 -1.317917 6.825759 138 175 212
-1.686102 -1.317917 6.825759 188 211 230
-1.682851 -1.317917 6.825759 198 219 232
-1.679600 -1.317917 6.825759 202 223 235
-1.676349 -1.317917 6.825759 206 225 237
-1.675551 -1.319849 6.835768 213 226 237
-1.674751 -1.321787 6.845806 185 180 201
-1.673948 -1.323731 6.855873 105 99 141
-1.670683 -1.323731 6.855873 83 80 106
-1.667417 -1.323731 6.855873 75 76 93
-1.666603 -1.325680 6.865970 67 71 94
-1.665786 -1.327636 6.876097 86 88 130
-1.662511 -1.327636 6.876097 186 186 210
-1.659236 -1.327636 6.876097 241 244 246
-1.658407 -1.329597 6.886253 243 248 250
-1.655127 -1.329597 6.886253 243 250 252
-1.654291 -1.331563 6.896441 243 251 252
-1.653452 -1.333536 6.906657 225 240 244
-1.652610 -1.335515 6.916904 128 145 176
-1.651767 -1.337499 6.927182 56 54 80
-1.648467 -1.337499 6.927182 45 41 53
-1.645168 -1.337499 6.927182 39 39 50
-1.641868 -1.337499 6.927182 39 37 57
-1.638569 -1.337499 6.927182 61 63 93
-1.635270 -1.337499 6.927182 109 87 96
-1.631970 -1.337499 6.927182 47 39 38
-1.631094 -1.339489 6.937490 30 24 19
-1.627790 -1.339489 6.937490 30 23 20
-1.624486 -1.339489 6.937490 26 24 18
-1.621181 -1.339489 6.937490 26 22 19
-1.617877 -1.339489 6.937490 39 26 19
-1.614573 -1.339489 6.937490 55 30 22
-1.611269 -1.339489 6.937490 55 29 20
-1.607964 -1.339489 6.937490 46 26 15
-1.604660 -1.339489 6.937490 40 25 16
-1.601356 -1.339489 6.937490 41 23 18
-1.598051 -1.339489 6.937490 44 25 16
-1.597124 -1.341486 6.947830 47 29 20
-1.593814 -1.341486 6.947830 60 36 23
-1.590505 -1.341486 6.947830 73 46 27
-1.589565 -1.343488 6.958200 84 53 31
-1.586251 -1.343488 6.958200 94 58 29
-1.585303 -1.345496 6.968600 100 57 31
-1.579623 -1.343488 6.958200 98 60 31
-1.576308 -1.343488 6.958200 99 60 33
-1.572994 -1.343488 6.958200 99 58 38
-1.572026 -1.345496 6.968600 101 57 36
-1.568707 -1.345496 6.968600 107 62 39
-1.567731 -1.347510 6.979033 120 74 43
-1.564407 -1.347510 6.979033 113 70 39
-1.563424 -1.349531 6.989496 96 63 34
-1.562437 -1.351557 6.999990 95 57 32
-1.559103 -1.351557 6.999990 91 52 26
-1.555769 -1.351557 6.999990 85 51 27
-1.552435 -1.351557 6.999990 82 50 27
-1.549101 -1.351557 6.999990 82 51 25
-1.548091 -1.353589 7.010517 80 48 22
-1.549412 -1.357673 7.031665 77 45 24
-1.548398 -1.359723 7.042286 80 47 25
-1.545044 -1.359723 7.042286 78 50 26
-1.541690 -1.359723 7.042286 75 49 32
-1.540663 -1.361781 7.052940 75 51 31
-1.539633 -1.363844 7.063627 78 51 30
-1.538600 -1.365913 7.074346 78 48 23
-1.537563 -1.367989 7.085097 72 42 17
-1.536524 -1.370071 7.095881 71 37 12
-1.533144 -1.370071 7.095881 72 37 10
-1.532096 -1.372160 7.106698 70 39 10
-1.528712 -1.372160 7.106698 79 38 10
-1.525327 -1.372160 7.106698 82 40 10
-1.521942 -1.372160 7.106698 80 44 6
-1.520875 -1.374255 7.117548 80 45 6
-1.517485 -1.374255 7.117548 82 41 7
-1.514095 -1.374255 7.117548 81 38 6
-1.513015 -1.376356 7.128431 80 36 8
-1.511932 -1.378464 7.139347 83 37 12
-1.508531 -1.378464 7.139347 87 43 11
-1.505131 -1.378464 7.139347 88 44 13
-1.504033 -1.380578 7.150297 85 46 11
-1.502933 -1.382699 7.161281 89 47 12
-1.501829 -1.384826 7.172298 86 45 13
-1.498413 -1.384826 7.172298 83 42 12
-1.494997 -1.384826 7.172298 82 40 7
-1.489289 -1.382699 7.161281 81 40 9
-1.485878 -1.382699 7.161281 78 43 6
-1.482468 -1.382699 7.161281 79 43 8
-1.485904 -1.389100 7.194435 79 42 10
-1.496332 -1.402082 7.261672 76 42 7
-1.502233 -1.410873 7.307200 77 39 7
-1.525047 -1.435625 7.435397 76 39 6
-1.636135 -1.554641 8.051803 65 34 6
-1.632300 -1.554641 8.051803 62 34 7
-1.631283 -1.557330 8.065733 62 34 8
-1.633092 -1.562738 8.093739 62 34 10
-1.629237 -1.562738 8.093739 63 35 9
-1.625382 -1.562738 8.093739 69 36 7
-1.621527 -1.562738 8.093739 73 38 7
-1.612074 -1.557330 8.065733 74 40 6
-1.608233 -1.557330 8.065733 80 41 4
-5.209764 -5.056949 26.190975 80 41 8
-5.197289 -5.056949 26.190975 80 41 10
-5.214108 -5.085519 26.338947 76 42 7
-5.201562 -5.085519 26.338947 72 38 11
-5.189017 -5.085519 26.338947 72 38 12
-5.176472 -5.085519 26.338947 73 45 19
-5.193267 -5.114415 26.488600 82 72 39
-5.180651 -5.114415 26.488600 114 114 62
-5.257654 -5.203104 26.947941 138 132 80
-5.275311 -5.233355 27.104614 134 136 78
-5.262402 -5.233355 27.104614 137 133 76
-5.249492 -5.233355 27.104614 136 128 80
-5.206313 -5.203104 26.947941 134 125 79
-5.193478 -5.203104 26.947941 132 125 78
-5.210763 -5.233355 27.104614 128 125 74
-5.197853 -5.233355 27.104614 126 118 64
-5.184943 -5.233355 27.104614 103 87 41
-5.172033 -5.233355 27.104614 67 44 22
-5.159123 -5.233355 27.104614 46 27 15
-5.176308 -5.263959 27.263121 37 23 12
-5.163322 -5.263959 27.263121 32 21 10
-5.337622 -5.455376 28.254507 35 20 12
-5.976103 -6.123381 31.714243 35 21 12
-6.085185 -6.250951 32.374954 32 21 12
-6.069765 -6.250951 32.374954 33 20 11
-6.054345 -6.250951 32.374954 32 21 14
-6.038925 -6.250951 32.374954 32 20 10
-6.023505 -6.250951 32.374954 31 19 8
-6.050099 -6.294664 32.601353 28 18 9
-6.034572 -6.294664 32.601353 26 16 9
-6.061431 -6.338993 32.830940 26 16 11
-6.045794 -6.338993 32.830940 26 16 12
-6.296193 -6.618654 34.279366 27 18 12
-6.326383 -6.667681 34.533287 34 19 11
-6.309935 -6.667681 34.533287 37 20 10
-6.293487 -6.667681 34.533287 36 21 10
-6.277039 -6.667681 34.533287 36 22 12
-6.307312 -6.717440 34.790997 36 23 11
-6.290741 -6.717440 34.790997 37 28 17
-6.274170 -6.717440 34.790997 44 41 22
-6.257599 -6.717440 34.790997 54 47 28
-6.287953 -6.767947 35.052586 57 45 27
-6.271258 -6.767947 35.052586 58 44 27
-6.254562 -6.767947 35.052586 57 45 28
-6.285124 -6.819219 35.318134 55 47 31
-6.268302 -6.819219 35.318134 52 49 31
-6.251480 -6.819219 35.318134 53 50 27
-6.234658 -6.819219 35.318134 58 52 25
-6.217836 -6.819219 35.318134 59 54 23
-6.201014 -6.819219 35.318134 61 55 33
-6.231400 -6.871274 35.587738 62 55 37
-6.214449 -6.871274 35.587738 60 57 31
-6.197499 -6.871274 35.587738 63 57 29
-6.180549 -6.871274 35.587738 64 58 27
-6.163599 -6.871274 35.587738 63 60 28
-6.146648 -6.871274 35.587738 66 59 28
-6.129698 -6.871274 35.587738 68 58 25
-6.112748 -6.871274 35.587738 66 59 29
-6.095797 -6.871274 35.587738 64 60 31
-6.078847 -6.871274 35.587738 67 60 31
-6.061896 -6.871274 35.587738 70 59 31
-6.044946 -6.871274 35.587738 69 57 33
-6.027996 -6.871274 35.587738 63 57 33
-5.965507 -6.819219 35.318134 60 58 37
-5.948685 -6.819219 35.318134 62 56 37
-5.931863 -6.819219 35.318134 65 58 33
-5.870567 -6.767947 35.052586 66 59 32
-5.853872 -6.767947 35.052586 63 58 32
-5.793616 -6.717440 34.790997 63 56 38
-5.777045 -6.717440 34.790997 65 55 40
-5.760474 -6.717440 34.790997 67 58 36
-5.701355 -6.667681 34.533287 65 60 31
-5.561323 -6.522731 33.782562 69 58 32
-5.505338 -6.475805 33.539524 66 59 38
-5.298761 -6.250951 32.374954 65 57 36
-5.283340 -6.250951 32.374954 68 57 29
-5.380004 -6.383950 33.063786 77 55 25
-5.602667 -6.667681 34.533287 99 54 19
-5.586219 -6.667681 34.533287 109 54 15
-5.569771 -6.667681 34.533287 108 53 13
-5.512490 -6.618654 34.279366 104 56 9
-4.853754 -5.845045 30.272686 96 53 11
-4.839335 -5.845045 30.272686 80 51 23
-4.763058 -5.770109 29.884575 69 56 38
-4.718577 -5.733356 29.694227 72 64 51
-4.674659 -5.697069 29.506289 79 72 52
-4.631293 -5.661239 29.320715 87 74 49
-4.617328 -5.661239 29.320715 84 78 45
-4.574592 -5.625856 29.137461 82 80 60
-4.560713 -5.625856 29.137461 89 96 77
-4.546835 -5.625856 29.137461 121 116 84
-4.532957 -5.625856 29.137461 145 118 97
-4.519079 -5.625856 29.137461 134 120 100
-4.505201 -5.625856 29.137461 135 128 101
-4.491323 -5.625856 29.137461 151 131 92
-4.477445 -5.625856 29.137461 146 123 69
-4.408461 -5.556401 28.777739 110 100 61
-4.314850 -5.455376 28.254507 89 84 53
-3.775158 -4.787962 24.797838 89 77 51
-3.743435 -4.762630 24.666634 89 76 55
-3.692611 -4.712759 24.408344 91 76 55
-3.661814 -4.688213 24.281218 93 75 51
-3.631335 -4.663922 24.155407 87 77 48
-3.582704 -4.616087 23.907660 80 79 47
-3.535060 -4.569223 23.664942 80 80 45
-3.559930 -4.616087 23.907660 83 78 53
-3.530437 -4.592535 23.785683 85 76 59
-3.466057 -4.523301 23.427103 87 76 57
-3.353779 -4.390912 22.741432 83 78 53
-3.326720 -4.369597 22.631037 84 81 49
-3.398427 -4.478293 23.193998 88 79 55
-3.546163 -4.688213 24.281218 84 78 53
-3.571804 -4.737563 24.536808 88 78 54
-4.149830 -5.522313 28.601189 88 79 59
-4.136208 -5.522313 28.601189 88 82 59
-4.148033 -5.556401 28.777739 90 82 59
-4.160005 -5.590913 28.956482 91 83 59
-4.146214 -5.590913 28.956482 90 84 56
-4.132421 -5.590913 28.956482 90 85 47
-4.093206 -5.556401 28.777739 93 77 34
-4.079499 -5.556401 28.777739 100 66 31
-4.065793 -5.556401 28.777739 104 77 58
-4.052086 -5.556401 28.777739 129 142 127
-4.013604 -5.522313 28.601189 206 224 202
-3.999981 -5.522313 28.601189 250 254 245
-4.165233 -5.770109 29.884575 255 255 255
-4.177780 -5.807335 30.077379 255 255 255
-4.163454 -5.807335 30.077379 255 255 255
-4.122531 -5.770109 29.884575 255 255 255
-4.082130 -5.733356 29.694227 255 255 255
-4.067987 -5.733356 29.694227 255 255 253
-4.028186 -5.697069 29.506289 255 253 226
-3.988886 -5.661239 29.320715 242 224 167
-3.974921 -5.661239 29.320715 177 172 152
-3.936200 -5.625856 29.137461 145 184 173
-3.897959 -5.590913 28.956482 209 232 211
-3.836509 -5.522313 28.601189 250 252 228
-3.799576 -5.488640 28.426790 245 227 181
-3.740422 -5.422512 28.084299 172 142 131
-3.639350 -5.294923 27.423492 69 66 111
-3.605082 -5.263959 27.263121 33 42 93
-3.592097 -5.263959 27.263121 29 39 82
-3.579111 -5.263959 27.263121 28 38 83
-3.545393 -5.233355 27.104614 27 39 84
-3.512064 -5.203104 26.947941 28 41 93
-3.479118 -5.173201 26.793068 32 40 100
-3.466357 -5.173201 26.793068 36 36 94
-3.453595 -5.173201 26.793068 26 26 65
-3.440834 -5.173201 26.793068 5 4 12
-3.408483 -5.143640 26.639963 0 0 0
-3.395795 -5.143640 26.639963 0 0 0
-3.363884 -5.114415 26.488600 0 0 0
-3.332334 -5.085519 26.338947 0 0 0
-3.301138 -5.056949 26.190975 0 0 0
-3.216385 -4.945807 25.615351 0 0 0
-3.204185 -4.945807 25.615351 0 0 0
-3.174542 -4.918781 25.475376 0 0 0
-3.162408 -4.918781 25.475376 0 0 0
-3.238765 -5.056949 26.190975 0 0 0
-2.979858 -1.960516 10.179026 24 20 19
-2.962075 -1.951992 10.134768 25 21 18
-2.950833 -1.947758 10.112784 23 21 19
-2.939640 -1.943542 10.090896 23 22 20
-2.922184 -1.935165 10.047400 21 22 17
-2.904877 -1.926859 10.004278 20 23 13
-2.875430 -1.910461 9.919135 21 23 16
-2.846480 -1.894338 9.835430 23 23 16
-2.835813 -1.890350 9.814724 22 22 15
-2.819268 -1.882424 9.773572 22 23 15
-2.808724 -1.878486 9.753125 29 26 18
-2.804079 -1.878486 9.753125 44 33 23
-2.805302 -1.882424 9.773572 60 42 21
-2.806531 -1.886379 9.794105 71 46 25
-2.813688 -1.894338 9.835430 79 46 27
-2.797201 -1.886379 9.794105 83 47 25
-2.566114 -1.733429 8.999988 84 51 24
-2.532494 -1.713581 8.896935 80 51 30
-2.523440 -1.710317 8.879988 82 51 31
-2.519211 -1.710317 8.879988 85 50 27
-2.510200 -1.707065 8.863106 87 51 26
-2.501224 -1.703826 8.846288 89 50 28
-2.506522 -1.710317 8.879988 84 49 27
-2.507068 -1.713581 8.896935 87 48 31
-2.512420 -1.720146 8.931023 86 52 31
-2.522664 -1.730090 8.982647 84 53 31
-2.542884 -1.746919 9.070026 85 53 35
-2.614873 -1.799432 9.342672 85 53 34
-2.620928 -1.806673 9.380269 85 58 25
-2.605973 -1.799432 9.342672 90 59 25
-2.591138 -1.792248 9.305377 94 57 32
-2.551063 -1.767552 9.177153 93 60 37
-2.526796 -1.753743 9.105456 96 63 34
-2.502905 -1.740148 9.034871 95 60 39
-2.488954 -1.733429 8.999988 91 59 37
-2.484668 -1.733429 8.999988 95 58 35
-2.489995 -1.740148 9.034871 89 56 38
-2.500228 -1.750324 9.087707 90 56 37
-2.500774 -1.753743 9.105456 95 53 35
-2.651817 -1.862897 9.672186 93 53 34
-2.113529 -1.524476 7.915100 70 39 26
-2.074538 -1.499026 7.782961 46 27 24
-2.050293 -1.484159 7.705775 25 17 18
-2.036525 -1.476836 7.667753 18 14 15
-2.022891 -1.469585 7.630104 19 15 17
-2.009391 -1.462405 7.592824 34 39 48
-2.002513 -1.460027 7.580478 84 124 133
-1.989199 -1.452939 7.543679 114 147 182
-1.982398 -1.450592 7.531492 121 148 180
-1.982013 -1.452939 7.543679 131 155 180
-1.975224 -1.450592 7.531492 145 158 189
-1.971637 -1.450592 7.531492 163 170 202
-1.952280 -1.438969 7.471144 154 176 215
-1.948721 -1.438969 7.471144 124 149 193
-1.945163 -1.438969 7.471144 109 139 170
-1.932314 -1.432084 7.435397 103 133 165
-1.910491 -1.418509 7.364919 101 127 166
-1.895008 -1.409602 7.318671 110 138 172
-1.885602 -1.405190 7.295765 159 193 202
-1.879186 -1.402995 7.284365 190 214 224
-1.878652 -1.405190 7.295765 196 216 229
-1.875177 -1.405190 7.295765 200 221 231
-1.871702 -1.405190 7.295765 212 223 234
-1.859497 -1.398624 7.261672 214 215 225
-1.838853 -1.385674 7.194435 140 137 177
-1.802055 -1.360479 7.063627 74 78 120
-1.793256 -1.356369 7.042286 58 68 106
-1.781827 -1.350250 7.010517 45 65 102
-1.773155 -1.346202 6.989496 47 64 108
-1.764535 -1.342177 6.968600 116 118 164
-1.758588 -1.340174 6.958200 220 222 232
-1.752658 -1.338176 6.947830 237 248 250
-1.749348 -1.338176 6.947830 238 249 250
-1.743441 -1.336185 6.937490 240 249 251
-1.740137 -1.336185 6.937490 239 250 251
-1.734251 -1.334200 6.927182 181 209 233
-1.728384 -1.332220 6.916904 74 91 135
-1.719986 -1.328279 6.896441 44 46 63
-1.711637 -1.324361 6.876097 40 41 56
-1.703337 -1.320465 6.855873 37 41 53
-1.695086 -1.316593 6.835768 43 52 76
-1.691830 -1.316593 6.835768 118 147 184
-1.688574 -1.316593 6.835768 233 244 250
-1.685319 -1.316593 6.835768 253 255 255
-1.689495 -1.322410 6.865970 254 255 255
-1.686224 -1.322410 6.865970 254 255 255
-1.685436 -1.324361 6.876097 251 251 248
-1.682161 -1.324361 6.876097 182 176 185
-1.678886 -1.324361 6.876097 61 60 85
-1.675611 -1.324361 6.876097 38 33 41
-1.672336 -1.324361 6.876097 37 32 34
-1.669061 -1.324361 6.876097 38 32 41
-1.668247 -1.326317 6.886253 59 55 88
-1.667430 -1.328279 6.896441 168 177 199
-1.661687 -1.326317 6.886253 247 251 251
-1.660860 -1.328279 6.896441 255 255 255
-1.657575 -1.328279 6.896441 255 255 255
-1.656741 -1.330247 6.906657 255 255 255
-1.655905 -1.332220 6.916904 236 244 245
-1.655066 -1.334200 6.927182 132 145 164
-1.651767 -1.334200 6.927182 45 45 57
-1.648467 -1.334200 6.927182 34 29 31
-1.645168 -1.334200 6.927182 32 27 32
-1.641868 -1.334200 6.927182 33 27 37
-1.638569 -1.334200 6.927182 59 51 74
-1.635270 -1.334200 6.927182 113 82 91
-1.634399 -1.336185 6.937490 48 40 40
-1.631094 -1.336185 6.937490 28 25 22
-1.627790 -1.336185 6.937490 28 23 25
-1.624486 -1.336185 6.937490 26 25 19
-1.621181 -1.336185 6.937490 26 24 20
-1.617877 -1.336185 6.937490 37 28 21
-1.614573 -1.336185 6.937490 54 33 22
-1.611269 -1.336185 6.937490 53 29 23
-1.607964 -1.336185 6.937490 47 28 15
-1.604660 -1.336185 6.937490 47 30 20
-1.601356 -1.336185 6.937490 60 37 29
-1.600433 -1.338176 6.947830 76 46 28
-1.597124 -1.338176 6.947830 78 49 28
-1.593814 -1.338176 6.947830 87 50 26
-1.592879 -1.340174 6.958200 97 52 29
-1.589565 -1.340174 6.958200 97 56 33
-1.586251 -1.340174 6.958200 97 60 34
-1.582937 -1.340174 6.958200 103 60 29
-1.579623 -1.340174 6.958200 101 61 31
-1.576308 -1.340174 6.958200 99 64 35
-1.572994 -1.340174 6.958200 103 60 36
-1.572026 -1.342177 6.968600 104 58 32
-1.571056 -1.344186 6.979033 104 57 31
-1.567731 -1.344186 6.979033 107 61 32
-1.566753 -1.346202 6.989496 99 62 33
-1.565771 -1.348223 6.999990 89 57 33
-1.562437 -1.348223 6.999990 91 50 33
-1.559103 -1.348223 6.999990 87 50 24
-1.555769 -1.348223 6.999990 79 53 24
-1.552435 -1.348223 6.999990 78 50 29
-1.551430 -1.350250 7.010517 82 49 26
-1.548091 -1.350250 7.010517 80 48 26
-1.549412 -1.354324 7.031665 74 46 25
